# .PCD v0.7 - Point Cloud Data file format
VERSION 0.7
FIELDS x y z
SIZE 4 4 4
TYPE F F F
COUNT 1 1 1
WIDTH 835
HEIGHT 1
VIEWPOINT 0 0 0 1 0 0 0
POINTS 835
DATA ascii
0.7981581202043573 0.6004855547123675 -2.0476956245544993
0.7873019362480109 0.615123419401539 -3.696708634479949
0.8238524276368675 0.5658408032056289 -0.8622457390091705
0.7940267144285467 0.6060561086902251 -1.6556716618612353
0.7982585354438485 0.6003501604804429 2.5859348420353307
0.7730392812881615 0.6343543770059901 0.1320817826328633
0.794636930003912 0.6052333285071201 4.563041325151077
0.7804939628706159 0.6243029058128333 3.8492748258443967
0.7917257381868448 0.6091586149681645 -1.0655450133787525
0.7760607494189395 0.6302804001980421 3.7279030774563617
0.7761117866491571 0.6302115844822216 1.9946013724782827
0.7882856967715984 0.6137969723287253 -2.034001444704363
0.7884006352618999 0.6136419957664846 -2.3582397499909087
0.36287878824679065 0.26107509169443793 5
0.4742188442382322 0.4175251898852177 -5
0.7323009135841171 0.6793093116841518 -3.44134287244389
0.7598896285773113 0.648869852634836 2.2566844238609978
0.7448411075878938 0.6654733384631228 -2.611203325194733
0.7254589264383563 0.6868582818913799 -3.5684081007483766
0.754972949681073 0.6542945723420641 -2.708561531822385
0.7498512836897514 0.6599454604767805 -1.1842037340038156
0.7436697498859648 0.666765732647077 -3.053369620737207
0.7589946673573356 0.6498572902669584 2.6935805356272113
0.7286260876909183 0.6833638576213941 -2.1280833153987295
0.7228300348083558 0.689758817097033 3.8125543101906154
0.7075733458463124 0.7065919809106731 4.744679986550934
0.7332335377489928 0.6782803193921173 3.20041138914661
0.7326407271909519 0.678934385111015 2.6551158606935084
0.7366417743501765 0.6745199094390728 0.45269823044129265
0.7122551205605474 0.7014264380527606 1.3850538915693784
0.7371812671464423 0.6739246708104023 1.375032742090939
0.7392215230458178 0.6716735951109912 0.9312636794252439
0.7318364822683948 0.6798217327236833 4.585728059394809
0.16083467310365046 0.15079215565051662 5
0.37137967945737116 0.42628721381607454 -5
0.668593708308791 0.7420129694726263 -1.1202335090329814
0.6537074638133901 0.7555050737849023 -4.934627672761005
0.6604803784023372 0.7493664623869476 -4.716193590564114
0.6926529144790241 0.7202069780810683 1.5425436239248056
0.6928487817670256 0.7200294543354457 0.4424420038250605
0.6599039778019229 0.7498888813912066 -3.389958876182515
0.7033020717163838 0.7105551454560786 4.285848484334117
0.6396986421989056 0.7682019284263188 -4.931844018112537
0.6715089775051792 0.7393707237330654 0.020651003147676317
0.6357871337873081 0.7717471126750339 0.5845735718083267
0.6540936320929653 0.7551550712902013 -1.1140218371935509
0.6444726991260332 0.7638749758444605 0.21308283425083108
0.6483340145580385 0.7603752838565107 -0.12604122592578193
0.6620614658248352 0.7479334484096638 3.1036630738296225
0.6461117958225523 0.7623893853307366 3.964513846753017
0.6400259457957318 0.7679052777652654 -3.7906265515228807
0.639373382803881 0.7684967263310271 4.987715314945051
0.6516682655271963 0.7573532952083274 -0.6674452430252764
0.5005601995924556 0.6062924335509304 5
0.21132178662828832 0.271568930952744 -5
0.6333057032018125 0.7738170310467567 3.1502675270349147
0.6102712483042172 0.7909005527907065 -2.986047130106402
0.5758474842171257 0.8164309647281653 -3.0718963616330495
0.6231427311215385 0.7813544073505756 -1.2846552159080793
0.5794828875109916 0.813734764991949 -2.7104595296198206
0.6016078911110248 0.7973257385241428 -2.764805456833076
0.5714791214994541 0.819670764402374 -4.015840958780846
0.6282340583636269 0.7775784204634337 1.6937015976132415
0.6110139151367009 0.7903497533453692 -2.8205705165719017
0.568782919969875 0.8216704044052049 -1.2190489491723429
0.5730777417761381 0.8184851464062695 1.7640145793934963
0.5825341354830277 0.8114718045134747 0.9807753386318052
0.5831721996807409 0.8109985836951775 2.960547016255285
0.5681015261746243 0.8221757606538815 2.9431249275857017
0.5673150405158613 0.8227590583664826 1.615301911756897
0.5642003712682504 0.8250690552842881 2.6364746229802827
0.5685829943172107 0.8218186794240689 0.10097196059689995
0.5928225861129996 0.8038413669437524 1.4691604087089183
0.5380322470380764 0.7337694774547685 4.999999999999999
0.40528856354229936 0.7219666919920659 -5
0.49054303430429913 0.8704454373407152 -3.7512945516989964
0.5472138165844509 0.8364782498431994 2.990912105459481
0.5489687031479604 0.835426410455401 1.8143249361893636
0.5287801624855119 0.8475269659513993 -3.1488413667413226
0.5538789029945288 0.8324833475201808 3.0223153988743974
0.4945669244538826 0.8680336084285143 -4.990643930780001
0.5445891060006123 0.8380514421116106 3.0702456359150787
0.5230638983988519 0.8509531655944014 -2.5164341481137966
0.5326933236150012 0.8451815055140213 0.47861306662528635
0.5482055909247372 0.8358838026939576 0.2012765109810526
0.5121903594474537 0.857470519360542 2.2728323166435143
0.4799170373337839 0.8768144200320296 -0.22430681168306554
0.4819624137561872 0.8755884675809177 -0.02190047212287549
0.47697134677836567 0.8785800004489526 0.18406605352955818
0.4812460012776559 0.8760178690468008 4.007143215653733
0.5026159766905931 0.8632091882334643 4.121139130488374
0.4907861937754671 0.8702996930432723 1.2120806824678325
0.4790429462736322 0.8773383304799797 1.102480241146253
0.49419488821947516 0.8682565985483175 3.8405470724877415
0.5124661385236782 0.8573052236082493 0.6725382014337971
0.47553116471487555 0.8226697967295116 5
0.3927913316377833 0.8203280598331586 -5
0.41819868050495507 0.9070820646103162 -4.973226515857279
0.4587824867495971 0.8878873820410726 1.6123524133926204
0.47101506992438696 0.8821018095980502 1.3233697628026329
0.4421483260161812 0.8957547425631244 0.759292649346786
0.434717027556804 0.8992694797995778 -1.1857606886446916
0.4571229245625309 0.8886722953435024 -0.12993365147156322
0.44997508746274445 0.8920529655389005 -1.0418163637132145
0.45631702071300306 0.889053458915982 0.42813510658287424
0.40721957844260975 0.9122747855126311 -4.901114775587033
0.4154857369292847 0.9083651894717291 0.470758071975943
0.4085696133949213 0.9116362674739139 -2.025079213533342
0.38430879018220176 0.9231107653963007 3.2514385797368255
0.40139066033867354 0.9150316543990219 2.5002320506386626
0.39109763858627966 0.9198998839589737 -0.4280605431552209
0.40651664923740755 0.9126072457772294 -1.2559408663370144
0.42184502188648926 0.9053574761147045 2.1050480018394797
0.4092460605269786 0.9113163322786676 0.031040064328634598
0.4120112638132759 0.9100084904513153 1.1633946062951332
0.29106883488705443 0.6632261967561152 5
0.2705448218733404 0.8534777548341882 -5
0.36083154791404004 0.9316982413713247 1.1527947114552406
0.3672090086114995 0.92941634649391 2.0268801929875764
0.3299432961768862 0.9427502488638033 -4.129912432389464
0.36041089507928203 0.9318487535570268 1.7162010968111387
0.33065521537665354 0.9424955197714344 -3.8340098009604784
0.3260371358167081 0.9441478971973796 -2.340673134301654
0.3091925274113693 0.9501750022562179 -4.100922137159426
0.33540473543645233 0.9407961121217798 -0.9355940678802597
0.36116986139917223 0.9315771907141266 -1.9540020418321167
0.2929377814471892 0.9559910508857479 2.898201691918629
0.31264712058028327 0.9489389274562842 -2.1299538744452606
0.3116689210082561 0.9492889333125941 -2.271687390072163
0.31655862689383196 0.9475393663075313 4.913771091721944
0.29303636767125124 0.9559557761250959 4.1291091849856905
0.30102084130164747 0.9530988820820935 -3.3042900088314897
0.33236285493660805 0.9418845157763988 -0.11731293755212258
0.2967985376333079 0.9546096484464415 -1.4515368220493354
0.32600891633394313 0.9441579943028294 1.0908107874770137
0.16239666838014502 0.48788668990253914 5
0.05888182623502235 0.28639163238238224 -5
0.28483492604765126 0.9583054386054082 2.1392250604947582
0.2602726538539367 0.9644579563960529 -1.456242240891448
0.22598136873662597 0.9730474606603337 -2.1780377295397173
0.24713442399368066 0.9677489057152083 0.2672377713185714
0.25580486831581406 0.9655770763940441 -2.192739710444617
0.2818650673339386 0.9590493481438952 1.632240321935399
0.2301081008862127 0.9720137699346827 -2.377898006613214
0.27959674339478363 0.9596175326864544 3.8005797471610943
0.267801692281111 0.9625720338517417 0.8664476853410501
0.23263738776412254 0.9713802176968744 2.138753024011236
0.2278327377128762 0.9725837177104308 3.4202215210979814
0.20881726882571733 0.9773468361101869 -0.9760069099653044
0.19780391891042465 0.9801055316719832 3.4995694180053505
0.23472240907928024 0.9708579479885098 1.031744394409986
0.20749831855380088 0.9776772153580408 -3.167521703499004
0.2280703546072506 0.9725241978843142 3.4054890653775214
0.2098480318923268 0.977088643869044 3.589997317811197
0.20893420183095657 0.9773175459700332 -3.503008747761111
0.19627139060599547 0.8396692952663385 5.000000000000001
0.10003422003277929 0.7524153471923367 -5
0.17185549933365118 0.9842318166683699 1.7640034877926798
0.11652812694175008 0.992438869922304 -4.810406758024396
0.1473407113591112 0.9878682476376708 -1.7882407903217583
0.1513669205976363 0.9872710149804246 -4.440042774015829
0.17719708396699835 0.9834394661978694 2.164076225623141
0.19116180646982694 0.981367992055824 3.894913546789759
0.19371051029625053 0.9809899269656585 1.0098558591719258
0.15289043335438096 0.9870450228577717 -1.1423904227725203
0.1893228019118413 0.9816407830395475 -0.39405559138927826
0.13252267574314794 0.9900662990209443 4.219266139419004
0.1320972228001574 0.9901294091020707 4.514692103520007
0.10596047734934036 0.994006435111547 -2.2996800666933055
0.12928330679325217 0.9905468147644467 1.029202838568536
0.12962153546744898 0.9904966432015994 4.551926040206688
0.1008516638394579 0.9947642571935904 -2.249764600124075
0.1046945452684608 0.9941942186905329 2.4399413553587532
0.11996151121621532 0.9919295746790353 4.359310055565811
0.13131263209612515 0.9902457923209398 -0.2881068497940118
0.032959410427193435 0.2675622328748866 5.000000000000001
0.04364525775912881 0.46199371805525624 -5.000000000000001
0.06969387407337667 0.9965761544945119 -1.7285318066434834
0.0383665261951879 0.998115170665699 -1.8805125494425563
0.09195386191448346 0.9954825898113127 1.3910012183287757
0.024548347275880303 0.9987940152616688 -3.77786620531862
0.04422852914680675 0.9978271885047715 -3.0580612029827123
0.0862270759612951 0.9957639291773245 3.1374355626447183
0.08548527421011223 0.9958003716139879 2.8635002352351506
0.08166090089568802 0.9959882513029563 -1.4387333852558863
0.056406841996554526 0.9972289054810564 -0.4450174723011435
0.025784528719504155 0.9987332854724872 1.4954564957872274
0.016922423162292463 0.9991686534396814 -0.15145616115449934
0.021751067730932293 0.9989314369952844 0.9392051109448387
0.045830829814162 0.9977484724050956 1.4757796230171762
0.020596423109070287 0.9989881611313948 1.489975880471357
0.011047095926035184 0.999457290181699 -2.89774537122862
0.013076685341755158 0.999357582701072 2.4194643571567136
0.008953191372785644 0.9995601572670618 1.6111682775111282
0.014869481762284224 0.9992695081314159 -2.761079452517291
0.013807656765945234 0.976063973950301 5
-0.04841491121480719 0.6043739163038511 -5
-0.04228594768522631 0.9979226215524348 -2.4921454758563315
-0.04893764781856474 0.9975958439997704 -1.0667468752293279
-0.03701215024053618 0.9981817069873876 -0.796388591669416
-0.0423250832103637 0.9979206989445495 -3.930834429820565
-0.021342178230135254 0.9989515244778381 1.3459468881443017
-0.02023639003348542 0.9990058484481648 -1.2361049699844724
-0.011834219651185283 0.999418621215962 1.6713184352387638
-0.021869697116879163 0.9989256090987111 2.271217854089831
-0.031959385546769116 0.9984299337636583 -1.1348542326149127
-0.09477041725837944 0.9953442211170281 4.510304865592927
-0.08726147094777524 0.9957131125356548 -3.5390969939699435
-0.06352792359076612 0.996879068662043 2.410189239745063
-0.0637324517372352 0.9968690208237739 -1.2253677849894273
-0.08755423012753664 0.9956987301783078 4.534284400805154
-0.08050658563452394 0.9960449592585894 2.3588808485052537
-0.09464593494381197 0.9953503365499684 -3.921888195921276
-0.07703939286346288 0.996215291766915 -0.6437365724208766
-0.06110522491349155 0.9969980883906436 1.9633168302613273
-0.0832597709472382 0.9516352572370619 5
-0.13300128443214376 0.6772462636654978 -5
-0.1586693109268296 0.9861878060058832 -4.055161182413411
-0.11644012057181777 0.9924519244545091 -0.9095821446366559
-0.11610667551851137 0.9925013864331184 -0.9900380241325104
-0.11524764698851307 0.992628811477677 0.6734187603626869
-0.1720724046463292 0.9841996417543036 -4.663967319180849
-0.11607550582579813 0.9925060100274976 -0.9751576613010471
-0.1543375677954407 0.9868303604057174 -3.479624578821767
-0.13725197808544207 0.9893647721907483 -3.885485573942624
-0.12144729157438028 0.9917091796377393 -2.046084304734917
-0.17398669541932169 0.9839156830980678 -2.0297429687021067
-0.18660546720476567 0.9820438621970351 4.024720104714888
-0.18565187001402145 0.9821853151992093 -2.4435019498152153
-0.16023637128276547 0.9859553541969992 1.4955344364276817
-0.16948290765857776 0.984583757947801 -0.08036200165733565
-0.18951868934225363 0.9816117258386781 4.509357523103468
-0.1597338891386391 0.9860298904986111 1.7881649839849518
-0.16118644283806216 0.9858144241742588 4.548989837346409
-0.15123170671252006 0.9872910720969629 0.12361202355003736
-0.07797542055051435 0.4779401018379992 5
-0.19908304459948184 0.7872454944071466 -5
-0.24709289207069787 0.967759308901567 -1.9012321745651648
-0.22650628700776315 0.9729159757156047 -1.382509797031946
-0.2584552090218275 0.9649132018055527 -4.501915373071272
-0.25754485296398577 0.9651412337155291 -4.219774996865101
-0.21155325768177036 0.9766615078156743 -1.6318439080827831
-0.2423788704550468 0.9689401077147648 -0.428245193561569
-0.22387803897607667 0.9735743163872512 -0.5418659970751776
-0.20629393869791396 0.977978896262462 -1.0329023404722435
-0.2408932814675212 0.9693122277125913 -3.121894108383313
-0.2531648202486274 0.9662383728153776 4.76602362933889
-0.2563663556953295 0.9654364313810565 1.2129120644479505
-0.2462891941319659 0.9679606243917367 4.10910868226194
-0.2770196000053191 0.9602630723347275 4.697999069576116
-0.2757715463651072 0.960575692932876 2.514453335507463
-0.2669219778903228 0.9627923904375382 1.4425943579846374
-0.2546492753267193 0.9658665368465656 -1.1043589626393635
-0.24808385938433491 0.96751108495962 4.0260890006544034
-0.2507125601860023 0.9668526308752019 4.796372649247022
-0.25498365283928043 0.9635319124592762 5
-0.1955270281544682 0.4944645563816007 -5
-0.3344077998359632 0.9411528218449422 -4.646332877350982
-0.32735422233386485 0.9436766354963376 -2.6538279968408034
-0.29988051323064036 0.953506898517983 -0.8759597199475362
-0.34792098844509056 0.9363177193915485 -2.9056027751798443
-0.2936685298732752 0.9557295845797573 1.280525646260765
-0.3430146858350485 0.938073224807264 -3.6039048330892527
-0.32857364471871314 0.9432403186258159 -0.8584939961258842
-0.3671440854271942 0.9294395764107561 -3.910510650204859
-0.335452812705638 0.9407789097775431 -3.9115795418157826
-0.3782538894034456 0.9254644198421567 -0.7674470330809802
-0.3743483310602912 0.9268618527703186 0.46969899726499387
-0.3622954468705404 0.9311744492715597 2.6418187353972984
-0.38138089526849717 0.9243455578054296 -2.9635075474132853
-0.339980827141055 0.9391587582101404 3.5488752208948586
-0.3481857895309951 0.9362229719254136 0.635651600712528
-0.33679798417708134 0.9402975991061728 3.8475763172487083
-0.350109463235052 0.9355346695776072 3.2267712743759502
-0.3673398963459542 0.9293695140530785 -1.2684851543443574
-0.28596830502996107 0.7866893963099655 5
-0.1799329166264131 0.3520538522850822 -5
-0.38372726209052993 0.9233858072949694 2.005611526732886
-0.41643091412618205 0.907918154608691 -1.9758879408172079
-0.42325459826528905 0.9046907971200071 -1.440703337882278
-0.4302603427467908 0.9013773316290417 -1.6034087981004586
-0.40687561964955943 0.9124374656666241 0.926581900366223
-0.41435567266254714 0.9088996692775935 -3.064413979374013
-0.3955475209464614 0.9177952494439338 0.20553460144305014
-0.4096579272189524 0.9111215341277593 1.0493470538385352
-0.40930783044836483 0.9112871173246491 -0.9486338996293391
-0.4539904628146203 0.8901538372311459 -1.7716592551357913
-0.4354209798471441 0.8989365356524588 3.084627570893292
-0.4283687574197406 0.9022719835423318 4.840279017139004
-0.45117398001124587 0.8914859324280976 -2.710512670085656
-0.443829116337726 0.8949597891156081 4.462408926587607
-0.45746579014423394 0.8885101322392082 -0.03823397598523237
-0.45148025541613734 0.8913410751631033 -2.0516759131933746
-0.4320544831682093 0.9005287676558602 0.8886724499403407
-0.4588694736949128 0.8878462403405396 2.9223343902823533
-0.32204146075511786 0.6499554065360138 5
-0.2774478040370355 0.4228981268781802 -5
-0.47639557506286134 0.8789251050165872 3.179448570354125
-0.517789089058421 0.8541147672288085 -3.777389339102257
-0.5101593363255418 0.8586878687673798 -2.6174475717529555
-0.5148006267491233 0.8559059840693908 -4.34933221072248
-0.5001463134595416 0.8646894486189686 1.406351044528387
-0.5143682786459678 0.8561651237617189 -2.1502433986046565
-0.496448550096111 0.8669058044981972 -1.5340502997207874
-0.5036823966552986 0.8625700001821477 0.105752605674164
-0.48119264462139555 0.8760498498219818 1.3991721852983048
-0.49250058814896847 0.8692721237600121 0.12048996230921061
-0.5354833505289096 0.8435092263695525 1.9518463237924877
-0.5238319604258115 0.8504928065552322 2.8274061360625486
-0.5174785983012996 0.8543008683789789 0.23823770739669042
-0.5533133524015811 0.8328223257777072 0.48110379952089444
-0.5319481433705698 0.845628149729323 4.626174906291352
-0.5551561484283295 0.8317177954422901 -3.229410423067009
-0.53892441282798 0.8414467313130108 -1.9183002217550003
-0.5335726079401882 0.8446544823402526 -0.4924030825818113
-0.5411021676402841 0.8401414342435709 -0.24576357789268366
-0.5548263660562034 0.8319154595509662 -3.7789790430828756
-0.49333129469582393 0.7624052575844293 5
-0.33395164591540727 0.4279703711283678 -5
-0.5578836274484009 0.8297538733482324 2.9065690491488514
-0.5701519434906202 0.8206550670252406 -0.9721196939495358
-0.5790409712947677 0.8140625125042052 -1.1308616044442243
-0.5952058342637075 0.8020738290625719 -4.549643453539472
-0.5953099151958117 0.8019966373567279 -4.526444202990914
-0.6129569460399912 0.7889087029348821 -3.1658620158996262
-0.5732393587885064 0.8183652830208643 -1.2144250094189726
-0.6085572819276357 0.7921717173132837 -4.506993053912048
-0.5898761874067147 0.8060265658811243 -0.2537830267553538
-0.6002103074064687 0.7983622575870819 1.85539947412482
-0.602303194993249 0.7968100658484297 1.9881743855606524
-0.6106518101740619 0.790618308778104 2.6805406328774124
-0.631580281157574 0.7750966916743375 3.7813044423170306
-0.6340791426617794 0.77324340905784 0.49993074267145055
-0.6024412123496237 0.7967077051666098 4.805491361946556
-0.6163336026824631 0.7864044028578898 0.39783973806552253
-0.627683055957251 0.7779870718351345 2.7782921426165297
-0.6113606557921314 0.7900925928632612 -1.9468974422740737
-0.4817316780571499 0.6284498989386637 5
-0.40114456108853064 0.43587383929835416 -5
-0.6563031488395827 0.7531524822265665 -2.457229748936978
-0.6515692249831124 0.7574430603168029 2.2442206680698273
-0.697983322908761 0.7153757779363128 -4.541092632199135
-0.668831215076015 0.741797705906369 -3.630288867827783
-0.6380119726925921 0.7697306364175485 0.18926696727790615
-0.6896331800311511 0.7229439055968473 -4.331099975488284
-0.6620457387149342 0.7479477026298857 -0.5919859901436135
-0.688786210406629 0.7237115540475303 -3.68601017090212
-0.6577752214105266 0.7518182735422638 -1.3182739975662927
-0.6808849210580536 0.730872864620213 2.0663545051146786
-0.6917466385687006 0.7210283786110385 1.0424913597925076
-0.6809707618859526 0.7307950630360307 3.945409474406685
-0.7060481540845571 0.7080662417051731 0.4010936155265661
-0.673048106867051 0.7379757383217431 1.87185758559705
-0.690313812495358 0.7223270163466247 -2.6839589484935757
-0.6862525664066327 0.7260079149025923 1.0525475927537558
-0.6766879660105333 0.7346767625954592 -0.7387377620645861
-0.7017943880709807 0.7119216301339283 3.826088486252269
-0.046643185937404116 0.051922584972794346 5
-0.607846882815603 0.5580682941526742 -5
-0.7243297811926467 0.6881041018027452 -2.3972568329630874
-0.7251132236200976 0.6872397062086133 2.074940527376663
-0.7604846385074989 0.6482133602824977 -4.379125264229684
-0.7098423275568971 0.7040885451442725 4.216132978108263
-0.7479821662382198 0.662007713979283 -2.291433498079985
-0.7108559891629637 0.7029701418059753 2.883024313610937
-0.7637564024666257 0.6446035247001795 -4.761947497685123
-0.7478974784723139 0.6621011525385962 -1.3692678685318418
-0.7206088151315286 0.69220955557503 -0.2108168444133378
-0.7410823650259634 0.6696204721849737 0.03293159406938456
-0.7663766067555642 0.6417125744992128 -0.8890029056255759
-0.7484615840737756 0.6614787578616632 2.2128943461850605
-0.7425559054707154 0.6679946706919863 1.0448848444371825
-0.7630929056535725 0.6453355806902923 3.5424319872143384
-0.748564650221665 0.6613650418807335 4.903781919552347
-0.7636508295165874 0.6447200065113183 -3.170820446318102
-0.7571870901281679 0.651851644591156 3.3021399696498888
-0.7626661070423744 0.6458064804350274 3.5477816141579397
-0.4347117135458731 0.4114742107952014 5
-0.5196527389638801 0.39870162626468253 -5
-0.7767272172817488 0.6293817726107874 0.7322207719894003
-0.7928253310028899 0.607675986180814 -2.6450250371592126
-0.7790942452574794 0.6261902059089378 2.2797146444206864
-0.8231894480501268 0.5667347273986435 -4.41218868436354
-0.7912400812631606 0.6098134473073026 -1.787671205956821
-0.7782490525319921 0.6273298159967645 -0.63336795737556
-0.7921713448535728 0.6085577841312527 -1.7428046974529696
-0.779744119829709 0.6253139517765942 0.4741775005607196
-0.7968488752646967 0.6022508665704563 -2.693469065916544
-0.805766674273863 0.5902266105568972 -0.34772859486257535
-0.8254689816117513 0.5636611332182521 -1.760985402885745
-0.830061423588084 0.5574689440924284 -0.2780786087073306
-0.8085612146717692 0.586458610274527 -1.0094507169958025
-0.8216506659690266 0.5688095341612995 4.617699309469845
-0.8238659213260688 0.5658226090779799 2.8242210659726132
-0.8088268104283488 0.5861004959718896 2.565498385336431
-0.807621364344824 0.5877258513206641 1.6267353725660412
-0.8138001372983271 0.579394743188914 -1.3781926577816828
-0.7009966810651875 0.5191012076230136 5
-0.6059858042299803 0.3498713962368426 -5
-0.8384992342591842 0.5438420105484572 -1.0016432268380253
-0.8478535614684757 0.5282352712299949 -3.1996117455859903
-0.867486720180822 0.49547935162551154 -4.962342201087322
-0.8532285791185898 0.519267603388085 -0.10762332732022228
-0.8541261983781361 0.5177700173535644 -2.9496495834771226
-0.8461143243353675 0.5311370107075756 -1.2283908134241897
-0.8322486558691249 0.5542704620384127 0.642157767473305
-0.8502523516367892 0.52423313489256 -2.312502169310659
-0.855839802281519 0.5149110443011109 -2.513961976400544
-0.8490635216612129 0.5262165762569336 -0.43334292573256983
-0.8687451516711701 0.49337978724417375 4.808172938218485
-0.8782101664635076 0.4775883770011502 1.2129893653362744
-0.8670203553104668 0.4962574337682542 1.7130595866397196
-0.8748115988160333 0.48325853992613377 2.037578780037408
-0.8585748597106939 0.5103478803917114 3.899462798079848
-0.8614590719304815 0.5055358669517028 4.698470593617754
-0.8657926331823516 0.49830576271594906 2.4104070702834792
-0.8727813069961807 0.48664587441464424 4.35235235019476
-0.8599476746762924 0.5080574788672386 2.915015326485741
-0.862275507764271 0.5041737271694269 -0.115751575133619
-0.6246676649777563 0.36080003160549745 4.999999999999999
-0.733732346332226 0.3132287807672574 -5
-0.8859492779855286 0.46288026951773653 -0.17329340732393073
-0.9127574533661345 0.4061990615063993 -2.8757243183979724
-0.9143473387692984 0.4028375263041146 -3.594192186264649
-0.9038124610053608 0.4251116866837034 -4.63971248338213
-0.8954062212739637 0.4428852134546896 -0.5515926986805502
-0.8822014583226981 0.47080438008781117 1.9928141026560444
-0.9043720056415493 0.4239286272078102 -3.8997545582222846
-0.8830897011158731 0.46892634572666103 4.537544440938401
-0.9233082250920067 0.38389129611827255 -4.947829756639434
-0.9031838037112385 0.42644087281256515 2.666344442040767
-0.9099476675320514 0.41213986326063523 3.913258277979099
-0.9111601912292503 0.4095761935246737 -1.1402954606177782
-0.9091573785381805 0.4138107914090341 2.6638586864198848
-0.9214858032221663 0.3877444890947541 2.280503799321969
-0.9102753549994472 0.4114470253021218 0.8073745177355891
-0.9235643736162191 0.38334971476942836 3.785605371861286
-0.9206755406892076 0.3894576478055721 -1.143324269195524
-0.915571133893148 0.4002500251037022 3.0448567677787164
-0.6315990287352768 0.2694151570086314 5
-0.8451381370002231 0.2904661132139869 -5
-0.9386090615936371 0.34151712427812864 -0.7078834567396779
-0.9453873917457792 0.32257298510346794 -4.060862685624721
-0.940444460367148 0.3363875349801801 -1.178504373561974
-0.9368423233979539 0.34645482036447733 0.5470002825633173
-0.9342492567883597 0.353701946668261 -0.5491221914145754
-0.935470245700034 0.3502895156779876 0.37666694580454907
-0.9463071742591976 0.3200023685130222 -3.1558268740098376
-0.9243453008166715 0.38138161350303085 2.050801882807453
-0.933211012997308 0.3566036399221216 -0.4511975891898876
-0.940640188395696 0.33584051249381985 4.718415275576585
-0.9536539872587246 0.2994694282712043 3.2621314292723715
-0.9404515391808627 0.3363677510467933 0.9748571028951658
-0.9465233445823328 0.3193982137145711 -1.0710670622544507
-0.9470995337866341 0.31778787485054055 3.533743898457381
-0.9488504247753313 0.31289446868338067 -1.2845059527144453
-0.9440113019933751 0.3264188933435871 2.7986012568510814
-0.9411835993217126 0.3343217826620723 3.3926859935423757
-0.9418058100862989 0.33258282231996394 3.0726536829556426
-0.8994292125461065 0.2950228863308971 4.999999999999999
-0.2564985382094953 0.0571954448861957 -5
-0.9693646108510995 0.2406841558785868 -4.16051000347039
-0.9660276241990489 0.2540061774059506 -2.0805945738575096
-0.9634802876695205 0.26417573324249 1.700500018946536
-0.9599362163110509 0.27832448475248933 -0.9034510686136441
-0.9570848087344006 0.28970796244667757 2.7121616517908596
-0.9606312822242127 0.27554962107349035 1.2966643996148068
-0.969533788031439 0.24000876149634165 -4.635925379454336
-0.9574115366761866 0.28840358903200136 3.8734394789975948
-0.96723974098185 0.24916712722148812 -3.095265818438358
-0.9692748943682006 0.24104232480197862 2.499963224043122
-0.977951099689488 0.20640490903797148 4.599503593964614
-0.9716725611242993 0.23147028527327262 -0.7543075924728164
-0.9713606785755584 0.2327153924497676 0.45657860604536016
-0.974933998036577 0.21844987575835878 -2.2013670987298672
-0.9793672797586098 0.200751191077826 -1.9058614061594383
-0.9692330824225943 0.24120924774700342 4.029690981034376
-0.9723329970121257 0.2288336726546214 3.4443036683745936
-0.970336021528694 0.23680606006694407 0.02629379271203519
-0.6243718403917111 0.15739358610337528 5
-0.8893049872312366 0.08766070472126196 -5
-0.9931876361920452 0.11148036266404039 -4.766485745913473
-0.9922722615169212 0.11765130782080982 -4.020862290475875
-0.9854914895164458 0.16336348805980458 -2.1182418693491645
-0.9812965718261041 0.19164328179644785 2.19632025442305
-0.9827128897898841 0.18209525658169368 0.4006073198304936
-0.9816944011424094 0.18896133858850245 -0.3385657572536229
-0.9826438947638226 0.18256038253884024 2.801950983934044
-0.9835266454799192 0.17660936990525267 -0.1260667605152741
-0.9897026306749359 0.1349743247557938 -2.6363233345184853
-0.9931945462192308 0.11143377911748652 4.626865431970119
-0.9897406677529317 0.1347179000057832 2.079812421599195
-0.990593899055051 0.12896589078540285 3.3556479150870158
-0.9895054929567773 0.13630331722210148 0.8129465166711293
-0.9943458078503714 0.10367261576009058 -2.9317546704485924
-0.9932745242718654 0.11089461172519806 4.20670367700453
-0.9898366737855935 0.1340706809179328 1.949531514319614
-0.9926765618277957 0.11492574077916849 0.8228987067818123
-0.9897047445395751 0.13496007426022022 1.2901997777091596
-0.9591123317978894 0.142026588732055 5
-0.8655583624849554 0.00650315408626683 -5
-0.9975794699996751 0.049270947758327216 -4.765160392886667
-0.9973093991295259 0.05476835854537715 -0.4703224621928985
-0.9977946259477625 0.044891354249184716 -3.055046276263388
-0.9967238352361847 0.06668776792848628 -1.2306860771997314
-0.9961204012120306 0.07897093164705352 -1.2064574997421287
-0.9970351879069441 0.060350048018654415 -0.24499843844732982
-0.9978573530811969 0.043614515988942205 -2.2260550471988974
-0.9975480358718012 0.049910803191678926 -0.6043304090857933
-0.9991810188870731 0.016670719067583335 -4.833788268211277
-0.9990283470419041 0.019778421309024487 -1.4757129739925414
-0.9988005231811633 0.024415875725685158 -1.8586296190704212
-0.9997282487086907 0.005531616495378746 3.2259523726881256
-0.9978380434338221 0.04400757231417194 1.248791120284
-0.9995523573300582 0.009111962504963796 -1.5340601964519318
-0.9989632671261219 0.021103151483902485 4.335072225270746
-0.9983413703298691 0.03376213301072705 0.8810378898751621
-0.998625946230531 0.027969465977924986 -1.2764461077575326
-0.9996768028503564 0.0065788194625118705 0.9120092575153644
-0.9893093709692367 0.04073085063234033 5.000000000000001
-0.9157222285862671 -0.05446835515990145 -5
-0.9984969666214706 -0.030594902381958534 -1.9404122110836441
-0.9983860116451426 -0.032853439496331786 -0.30985236347471723
-0.9978691790615091 -0.04337379298279084 -4.347086104212534
-0.9964389801836963 -0.07248611721892231 -2.8224225183533487
-0.997299832995567 -0.054963081389739495 -4.004553307224726
-0.9970461177954837 -0.06012756535280839 -3.222818708355385
-0.9984148085579538 -0.032267265730030595 -2.765681967642708
-0.9960413324229673 -0.08058041146127952 -4.0486620561491815
-0.9973824240111409 -0.053281905113017274 -4.3537251038789115
-0.9956317815856285 -0.08891699803867728 4.760171898845681
-0.9969951360214903 -0.06116532168002363 1.4739627629507868
-0.996554372424422 -0.07013725764529002 -0.7158162207773677
-0.9955078896262015 -0.09143887310727081 1.5377921470300127
-0.99682735689988 -0.0645805391467324 3.7695968267154703
-0.9954857554119545 -0.09188942472765631 0.32773281494469897
-0.995567708134866 -0.0902212411774922 -2.3562912504918287
-0.9962977371664039 -0.07536118066589426 -0.6133967883721203
-0.9955680717168816 -0.09021384030640535 3.1162881071173154
-0.3739106073602112 -0.011079036692329413 5
-0.983006374372174 -0.15342664756133118 -5
-0.9896146055158939 -0.13556774124810805 -3.2635035195492925
-0.9928677547199485 -0.11363682501177583 3.0841540588628154
-0.9847755599014412 -0.1681898859385761 -2.3912899690275666
-0.9858737449978056 -0.16078653495475445 -4.467884204503264
-0.9927819299265395 -0.11421540786709322 -1.5446547616367434
-0.9879732432347401 -0.14663288964541815 -1.678605269295085
-0.9949330638515421 -0.0997136635685027 1.2037514419473536
-0.9912553959301524 -0.12450644805822597 -0.4563069081395552
-0.9825449801313351 -0.18322720978332332 -4.046850285977245
-0.9871724072152941 -0.15203167911367188 1.756051920033979
-0.987304032028672 -0.15114433808633318 0.6345298869537838
-0.9820462739945812 -0.18658920821181946 -1.8580650944731745
-0.9871669379043468 -0.1520685501554623 0.356810762752907
-0.9827102814817208 -0.18211284033954175 -0.48635066830929574
-0.9826635219628543 -0.18242806691760155 -3.1251641278758426
-0.9859307971686719 -0.16040192106160456 4.033566165218359
-0.9834455000600926 -0.1771564070356001 1.390005850663743
-0.9846791485829389 -0.16883983723735724 3.384456089421893
-0.5520432353065725 -0.09890268584902502 5
-0.9397221813889822 -0.2610067382111086 -5
-0.9697716289934368 -0.2390592454370326 0.21077937918450118
-0.9802954816698094 -0.19704559464244847 1.7605362447126094
-0.9639717694837038 -0.2622136243126172 -3.173773546559991
-0.9799180279856793 -0.19855247693772987 1.8184702405399427
-0.9604475341683449 -0.2762831857565785 -4.178381528152793
-0.9689210352401476 -0.2424550121792804 -4.792912559177683
-0.9622388504388701 -0.2691318374275142 -4.5209208467732545
-0.9732877951149284 -0.22502189807889592 -2.9002796738171384
-0.9609277424440985 -0.274366083396197 -4.652686437437888
-0.968247359987543 -0.24514447940029516 3.9692622901584613
-0.9577060597922988 -0.28722778472042493 4.719489961729576
-0.9584737870370592 -0.2841628402216033 1.6696239455819861
-0.9569532315368918 -0.2902332490122216 -4.738768904639335
-0.9652051432718273 -0.25728971125274014 1.0695662722081507
-0.957948570788202 -0.28625962480703204 -0.8834158912640626
-0.9639734137147277 -0.2622070601625678 -0.21900468271221407
-0.9672987509437619 -0.24893154582279214 4.733447940436617
-0.9673626727835963 -0.2486763550728316 0.8690333988224201
-0.1833346250996773 -0.05310194595195132 5
-0.6701141562412962 -0.2698649585883747 -5
-0.9369588789541765 -0.3461290698287111 -3.903988919819002
-0.929910148100303 -0.36582892736048167 -4.197029304853
-0.9424940938823272 -0.33065920046458663 -0.9125643163592749
-0.9455601955771448 -0.32209003137329817 -1.8167833619383325
-0.9523488217838199 -0.3031171166911528 0.16874994436809887
-0.9440845575459558 -0.32621415805447374 0.7174192989370072
-0.9501280915652321 -0.3093236338400713 2.24531130228114
-0.9491160076597325 -0.3121522152062597 -1.9836567148279682
-0.9436789384463566 -0.3273477860280647 -3.3031584130849936
-0.9256430877693601 -0.37775454664453345 4.377754209350921
-0.9351382324289528 -0.35121742940806866 2.7724749310392927
-0.9339512541698807 -0.35453480711503255 3.1942445102044923
-0.9276976131331431 -0.3720125403456703 2.554858549583681
-0.9274776160772107 -0.3726273901319825 0.9263398049611433
-0.9317927511681976 -0.36056741106836554 2.3288994763784783
-0.9308862597839873 -0.36310088148920133 4.502803568385458
-0.9263045797161693 -0.3759058028946718 -2.7310676745596143
-0.9285044278956682 -0.3697576470598042 0.2737848532895064
-0.17422486283076816 -0.059395457833910204 5.000000000000001
-0.5583416807595056 -0.2580240706463197 -5
-0.9218217606542045 -0.3870341657393613 2.8765487161278824
-0.9138446442853541 -0.40390038605514456 0.012052072008072567
-0.9117682214409607 -0.40829061976152725 0.6308589712060937
-0.9000378867926153 -0.43309236508010185 -4.877388868179413
-0.9121485096374384 -0.40748656674177564 -2.2557940384235753
-0.9132110856987998 -0.40523993511143097 1.2854875403034605
-0.8985050313305869 -0.4363333204252911 -2.816063995488066
-0.9158513025232827 -0.3996576574331144 -0.7022413066778816
-0.9062843108447552 -0.41988539161026595 -2.3773369021415833
-0.890025260054191 -0.4542623168147163 -0.771097917743937
-0.9023140482716295 -0.4282798188911979 1.4299514651169811
-0.8944334848404396 -0.4449418948716825 3.5020721129082877
-0.8925397054142129 -0.4489459609471085 3.6070866699477957
-0.899521063954356 -0.4341850967705088 -0.5824572660322894
-0.8844816194576892 -0.4659833773244046 -3.0950070589978775
-0.8866104071983869 -0.46148242718403204 -0.5013285364243978
-0.8867318580998742 -0.4612256404496633 2.538340442573049
-0.8993343595987757 -0.4345798505448719 -0.8214474521107036
-0.09707318149633162 -0.04759158508912817 4.999999999999999
-0.28975727875248153 -0.16437759867675109 -5
-0.8725804499874446 -0.4869809838143365 -0.971167532224186
-0.8614277243969235 -0.5055881671090067 -3.2330319139904873
-0.8615330120280216 -0.5054125054526157 0.6724406732870469
-0.8551098784238671 -0.5161288476891928 -4.5629741326397575
-0.8600803161343521 -0.5078361801450063 -0.10157166632246728
-0.8810675929171294 -0.47282105287557763 3.9156491896276053
-0.8518309159547943 -0.5215994615927786 -4.651394151034548
-0.8736422478166941 -0.48520948260861163 2.3632444556721577
-0.8766784059178325 -0.4801439629882333 2.7870330872842963
-0.8767459403187177 -0.4800312887396143 0.34333756625985723
-0.8374152193084355 -0.5456505787517208 -2.984786208348705
-0.8478073749560457 -0.5283123287076087 3.8551934319144054
-0.8426951307240061 -0.5368415859461734 -0.6551362750339218
-0.8564003297028375 -0.5139758615616535 4.616118725149564
-0.8492435313729909 -0.5259162484424733 1.3423183206795402
-0.8482238306396885 -0.527617514944215 2.0916853350071234
-0.8545265565450046 -0.5171020606523998 2.4259224130651416
-0.8539321108842611 -0.5180938325092789 1.7329465600893559
-0.8353669452757259 -0.5490679147253358 -1.2429492671730364
-0.8391238996759308 -0.5427998201159114 3.216475981400222
-0.8002564345501595 -0.4812492671631269 5.000000000000001
-0.42531350067011753 -0.3211784282135525 -5
-0.8007972186151979 -0.5969271436173978 -1.414754772730402
-0.8148085136846634 -0.5780351054784353 1.2733197004298433
-0.8126480651068855 -0.5809481321991123 -0.29797993948810353
-0.8020707064013579 -0.595210044683548 -1.6553984885003672
-0.7787376934533856 -0.6266709602038165 -4.450749377433893
-0.8226135545417205 -0.5675112296470688 2.382679765037509
-0.8088201742865064 -0.5861094437703736 0.5686198950377706
-0.8253535663907613 -0.5638167525772013 1.7024087436956956
-0.8280663592226132 -0.5601589760912762 4.108494093803682
-0.8008325875514517 -0.5968794541433466 1.9790655791294185
-0.7915187777947238 -0.6094376686603336 -0.07299739105412695
-0.7957042071986906 -0.603794272276512 4.97781403460746
-0.7913099832523921 -0.6097191954169525 4.761030842954211
-0.7983700921634693 -0.6001997437065981 0.9598175057923274
-0.7952338262083262 -0.6044285074107912 4.649163877269002
-0.7790707413626677 -0.6262218972319022 -0.38145143237480283
-0.8009093357193563 -0.5967759712527244 3.306089801984907
-0.7947437267268508 -0.6050893298436938 1.3409421098052365
-0.29210732908572373 -0.19868532770344619 5
-0.7040934427916311 -0.6856133057605276 -5
-0.7284107196545979 -0.683601479653581 -3.9739703639944324
-0.7600625240010928 -0.6486790919135299 0.40244233450625266
-0.7538701022227863 -0.6555113771135964 2.0835882156640078
-0.7385035682541831 -0.6724657362268284 -1.2952327180566738
-0.7512704202098697 -0.6583796844701708 -2.5096363539055857
-0.7520774342534717 -0.6574892816029658 -1.6830728485505375
-0.7719159220137208 -0.6356008813665858 2.1494011071451897
-0.7470728422116051 -0.6630109985279662 -0.5562835875281245
-0.742326188187977 -0.6682481246793341 -4.373946692791777
-0.7353031446547331 -0.675996859844581 3.289155758553532
-0.7190361606453766 -0.6939447125709888 1.2755191233624845
-0.7264898028709404 -0.6857208849172083 0.7224158227266932
-0.7379370802937684 -0.6730907594320492 -0.2538702965045325
-0.7332162103905852 -0.6782994371878107 3.3066613545115593
-0.708422151791374 -0.705655467781595 0.020967072090309458
-0.7224246360541122 -0.6902061057359379 3.938918489518044
-0.7233354968945931 -0.6892011255742927 -1.2844066643218603
-0.7241740940299106 -0.6882758761320602 2.161909073029917
-0.3201812483365073 -0.31442466094832944 4.999999999999999
-0.49752590653272377 -0.5825835910855441 -5
-0.6698240306581922 -0.7408978703970353 -1.1698044082661854
-0.677057303497067 -0.7343420146409777 -0.43332491607285695
-0.6841654322971787 -0.7278995828197196 -2.4875248426724483
-0.6909667804730555 -0.721735200723121 1.7628667726842373
-0.6536813918197034 -0.7555287040603932 -4.033747802764967
-0.7057926242733104 -0.7082978404048522 2.8393044591177974
-0.6923439333078686 -0.720487022265016 -2.0200045988167226
-0.6874473719453067 -0.7249250063848897 -0.7088360637244495
-0.6972332359089074 -0.716055617102493 -0.10160983493295506
-0.6551315603389232 -0.7542143480495311 2.4332498258670654
-0.6667105245846582 -0.7437197875524335 0.3563650462242202
-0.6364964094137678 -0.7711042627781842 4.179103977497732
-0.6696864211392035 -0.7410225923835061 3.500420541913784
-0.6576524641459041 -0.7519295342312771 3.79263141129969
-0.6444305035849833 -0.7639132196501116 4.307728514375674
-0.6516233714983742 -0.757393984780506 4.261711813381082
-0.6614014772317679 -0.7485316271474461 -0.7695014311726822
-0.670619908826998 -0.740176528538334 1.139730378681966
-0.462484107167319 -0.5033776407547225 5
-0.5681566300028164 -0.7987453128390449 -5
-0.5796902359553187 -0.8135809848537613 -2.5913705342356166
-0.5896815273891935 -0.8061709356375082 -1.1347122919847754
-0.6020856127806677 -0.7969714358689601 -2.96008786774947
-0.5789432669519337 -0.8141349750075597 -4.24264943333436
-0.607206163716582 -0.7931737752061143 -0.05735327961311398
-0.6132270690610326 -0.7887083659820859 -0.3894090411349449
-0.6155580697391466 -0.7869795774803932 -1.384426630675812
-0.6007469446168834 -0.7979642601743588 -1.2428252686133145
-0.5800357423391659 -0.813324739770152 -3.409870462843624
-0.5756280515694507 -0.8165937071253505 4.356322436756743
-0.5759712131762054 -0.8163392010475318 0.7183111376771387
-0.5749037680879778 -0.8171308725438307 0.8032884821353199
-0.5838400525158502 -0.8105032701103292 2.5129350340633136
-0.5708635488232414 -0.8201273043659119 -2.5393482361253294
-0.5566915426347995 -0.8306379839957091 4.701920607370374
-0.5894462610558497 -0.8063454211002277 4.486706724612439
-0.5568298550570923 -0.830535404478017 -1.639124233345556
-0.5935274323541326 -0.8033186171699868 2.260352369872467
-0.5126135464132716 -0.7206658496973 5
-0.43724733038071906 -0.760314282901693 -5
-0.5237575797453877 -0.8505373886558576 -1.3750379917430302
-0.5386133541415324 -0.8416331728671976 -1.26814918198057
-0.5285259076954258 -0.8476793605325135 0.1806196155969122
-0.5098441670335302 -0.8588767741257404 -1.5915777834359481
-0.536339718999988 -0.8429959384413872 0.3432969422686938
-0.553823480366362 -0.8325165665922811 2.7426785421198825
-0.5276110142005328 -0.8482277270386906 -0.11377093547848371
-0.513507601428995 -0.856680994254899 -4.223124852489146
-0.5113067066324608 -0.8580001609084774 -3.8335529860751545
-0.5296458408444943 -0.8470080978866048 1.8560395368608056
-0.5041750933717724 -0.8622746888934285 2.4020276589642364
-0.4943265853889489 -0.868177662238134 -1.3974368797020045
-0.47759017801994186 -0.8782090869735036 4.991118648078341
-0.4896892452743836 -0.8709571792100809 2.3767836810408296
-0.500676914691871 -0.8643714182191791 -0.13710371619685136
-0.4823283315264945 -0.8753691447303656 2.127903680680472
-0.5121216951736168 -0.8575116751761133 0.3661213285498902
-0.4753305046655407 -0.8795634841676812 -0.4791804333740708
-0.4922639754310462 -0.8694139440813593 -1.0141103430860077
-0.4721609839644205 -0.8814632233207425 4.800548127044624
-0.19509802350266092 -0.36258828182231 4.999999999999999
-0.3918209932467174 -0.8533848168583724 -5
-0.4642060957163543 -0.8853222098177218 3.930257283226507
-0.45058409968534385 -0.8917649246335423 -2.245420726541882
-0.4545941889795704 -0.889868296441179 -0.35851180234635516
-0.4290846250039263 -0.901933403889225 -0.22291141300516237
-0.4199394747342451 -0.9062587314697979 -4.6612491597194445
-0.4285385197991091 -0.9021916920348144 -2.435383228639057
-0.47026668381870473 -0.882455769343748 1.982719807082162
-0.45108099483951286 -0.8915299110742675 -1.8182185083173115
-0.468565337478015 -0.8832604450499404 1.3933454725628645
-0.4021741344629166 -0.9146610992809188 0.28960860474296446
-0.38351445894968744 -0.923486455536625 3.790957322224134
-0.3893908974506544 -0.9207071112093876 -3.7605952190500678
-0.41581688004402784 -0.9082085706732317 4.930312252431307
-0.4059592888820296 -0.912870857204745 4.511305445711129
-0.40555523385419956 -0.913061960719111 -1.5704980668505257
-0.39503830410644825 -0.9180360907180136 -0.12035644033461446
-0.389768806143528 -0.9205283739722705 1.3640537100308767
-0.42466777929981187 -0.9040224132526334 0.8794767624677284
-0.15919540025484147 -0.343789414693763 5
-0.3252309903488704 -0.9233141995623817 -5
-0.3467175468023149 -0.9367483182537275 -1.2429456387335112
-0.37110673679807127 -0.928021715244197 2.1229895084977235
-0.3805544370471473 -0.9246412696680595 0.8222546298501632
-0.3305765028236717 -0.9425236836096702 -1.197694670546666
-0.3773114167426073 -0.925801642388699 1.8772552347595273
-0.38032309662865527 -0.9247240447004649 3.280167878560345
-0.32937186851651357 -0.9429547092145409 -3.0952601783416926
-0.3422699158658127 -0.9383397081081062 -2.4959327517836645
-0.35422044007795117 -0.9340637366398755 1.7828123526915378
-0.3186729924886629 -0.9467828332219179 1.6272608940075297
-0.30027019850430314 -0.9533674667171521 -2.999118309795756
-0.31329084931826656 -0.9487085973328491 3.296189142740286
-0.32047065230847155 -0.946139619421198 -1.2172448706541525
-0.2971185570478228 -0.9544951435208453 -1.0902162147378682
-0.3179854493353774 -0.9470288404141078 0.23353034222871827
-0.30743746857306387 -0.9508029731623004 3.6129434850013715
-0.302621385057923 -0.9525261976279221 -3.0795014635762548
-0.29398260136996224 -0.9556172078559435 4.084992898040174
-0.26922610716117534 -0.8638067255332433 5
-0.08394619939823404 -0.36068147981429666 -5
-0.28556094348810745 -0.9581235810319925 4.10701247727075
-0.2016892924700571 -0.9791322980167085 -4.333151731544412
-0.228741176377152 -0.9723561660816732 -4.591922724559062
-0.2532527769039819 -0.9662163408599216 0.34391044437963814
-0.2861113283085405 -0.9579857170602595 3.4781209228532486
-0.22802722254239494 -0.9725350018846234 -4.542730204129203
-0.248642231068437 -0.9673712203862965 -1.5460736276688973
-0.2387395017406729 -0.9698517204753967 -1.8300407464005666
-0.27791055889975497 -0.9600398991524781 1.1371654479193483
-0.20591581123393848 -0.9780736120904967 3.514759279512752
-0.2156339219836625 -0.975639356464324 4.224487354637152
-0.20838909595226685 -0.9774540876380828 2.900917146840921
-0.22839283389505532 -0.9724434211736058 0.748569853107953
-0.23043570148786813 -0.9719317104039513 2.430667870837561
-0.20240151816519708 -0.9789538950894167 2.5586041375977393
-0.2320111843787063 -0.9715370731961925 3.2474304300903083
-0.22474136168034659 -0.9733580656977713 1.0700211464826899
-0.23663637935899892 -0.9703785242567042 0.051961390073785474
-0.15373720595953932 -0.5393384887911246 5
-0.08267371277629457 -0.6949357628996468 -5
-0.14726343057006408 -0.9878797111777557 -4.2541007623930085
-0.14092175646322308 -0.9888204111398881 -1.9234463747057662
-0.18027999558044464 -0.9829821587441643 -1.499607443875175
-0.15261778283624755 -0.9870854668048687 -0.862934788687646
-0.13927882898435423 -0.9890641167909702 -4.65179358972118
-0.1899361216344165 -0.981549805510573 1.7833586017778136
-0.1787207732673703 -0.9832134478874022 1.6345521159430976
-0.1759728686371818 -0.9836210616717138 0.7780325825083594
-0.1447480200345006 -0.9882528376670214 -2.346440523481837
-0.10360988259858113 -0.9943551134503854 -0.014876426674379495
-0.14339603668075776 -0.9884533857665047 -0.034037627247826774
-0.12692942365601992 -0.9908959808901028 0.8214487550567204
-0.09809956535374718 -0.9951724930785752 -2.9258491051425453
-0.13546602683678008 -0.989629693447136 -0.9735018615932045
-0.13574503331744148 -0.9895883066805864 1.6195420017216895
-0.1434351220117849 -0.9884475879962632 0.7322707484461146
-0.10152299837247425 -0.9946646739669618 -3.688710794943434
-0.12922522774923917 -0.9905554299902664 1.0995087912465584
-0.07462439948678651 -0.6811140317539233 4.999999999999999
-0.03030587540181795 -0.6170106904298125 -5
-0.06153212326616714 -0.996977116188631 -0.9968672305777555
-0.08963305268431386 -0.9955966040250073 2.558699558820626
-0.06701910139270936 -0.9967075578429794 -2.5274813378922767
-0.05735323877025972 -0.9971824119207093 -1.3949877689401065
-0.04664501801212262 -0.9977084738451177 -2.9588690332843237
-0.05948993389474518 -0.9970774426662972 -0.5457269450914302
-0.03144552385564265 -0.9984551782068033 -3.9943150995670678
-0.04905990602910155 -0.9975898378302152 -3.7191232944697132
-0.05744438041648209 -0.9971779344121775 -3.6039588575177355
-0.006668971395878541 -0.9996723739633706 4.394365403606467
